ply
format ascii 1.0
comment 
element vertex 1866
property float x
property float y
property float z
property uchar red
property uchar green
property uchar blue
end_header
187.0	150.0	96.0	187	150	96
217.0	183.0	113.0	217	183	113
219.0	186.0	111.0	219	186	111
217.0	183.0	113.0	217	183	113
210.0	175.0	112.0	210	175	112
231.0	194.0	141.0	231	194	141
203.0	165.0	117.0	203	165	117
225.0	190.0	140.0	225	190	140
219.0	186.0	135.0	219	186	135
197.0	168.0	112.0	197	168	112
225.0	195.0	139.0	225	195	139
213.0	186.0	127.0	213	186	127
216.0	190.0	130.0	216	190	130
229.0	203.0	143.0	229	203	143
227.0	200.0	141.0	227	200	141
208.0	178.0	120.0	208	178	120
205.0	176.0	116.0	205	176	116
230.0	200.0	135.0	230	200	135
201.0	172.0	109.0	201	172	109
223.0	196.0	139.0	223	196	139
190.0	166.0	119.0	190	166	119
100.0	81.0	44.0	100	81	44
104.0	88.0	61.0	104	88	61
93.0	80.0	59.0	93	80	59
97.0	91.0	75.0	97	91	75
73.0	75.0	63.0	73	75	63
71.0	78.0	66.0	71	78	66
74.0	80.0	69.0	74	80	69
75.0	81.0	70.0	75	81	70
73.0	79.0	68.0	73	79	68
69.0	75.0	64.0	69	75	64
66.0	72.0	61.0	66	72	61
67.0	73.0	62.0	67	73	62
66.0	79.0	56.0	66	79	56
38.0	51.0	28.0	38	51	28
61.0	74.0	51.0	61	74	51
53.0	66.0	43.0	53	66	43
34.0	49.0	26.0	34	49	26
41.0	56.0	33.0	41	56	33
34.0	51.0	27.0	34	51	27
18.0	36.0	12.0	18	36	12
45.0	65.0	40.0	45	65	40
30.0	50.0	23.0	30	50	23
31.0	49.0	23.0	31	49	23
46.0	64.0	38.0	46	64	38
25.0	43.0	17.0	25	43	17
30.0	48.0	21.0	30	48	21
39.0	54.0	28.0	39	54	28
45.0	58.0	33.0	45	58	33
58.0	69.0	43.0	58	69	43
34.0	45.0	18.0	34	45	18
25.0	33.0	8.0	25	33	8
62.0	69.0	44.0	62	69	44
44.0	50.0	27.0	44	50	27
40.0	46.0	24.0	40	46	24
54.0	60.0	40.0	54	60	40
57.0	67.0	46.0	57	67	46
101.0	116.0	97.0	101	116	97
43.0	59.0	42.0	43	59	42
21.0	40.0	23.0	21	40	23
18.0	38.0	22.0	18	38	22
79.0	100.0	84.0	79	100	84
52.0	73.0	59.0	52	73	59
0.0	6.0	0.0	0	6	0
90.0	107.0	99.0	90	107	99
38.0	54.0	51.0	38	54	51
55.0	71.0	72.0	55	71	72
106.0	118.0	125.0	106	118	125
46.0	58.0	70.0	46	58	70
13.0	23.0	40.0	13	23	40
15.0	25.0	47.0	15	25	47
64.0	74.0	98.0	64	74	98
44.0	54.0	76.0	44	54	76
27.0	38.0	52.0	27	38	52
35.0	47.0	54.0	35	47	54
18.0	34.0	35.0	18	34	35
6.0	23.0	19.0	6	23	19
37.0	55.0	42.0	37	55	42
60.0	77.0	58.0	60	77	58
55.0	68.0	46.0	55	68	46
53.0	61.0	38.0	53	61	38
84.0	87.0	66.0	84	87	66
109.0	110.0	89.0	109	110	89
88.0	91.0	74.0	88	91	74
123.0	127.0	114.0	123	127	114
45.0	53.0	46.0	45	53	46
61.0	72.0	71.0	61	72	71
90.0	110.0	115.0	90	110	115
177.0	200.0	213.0	177	200	213
185.0	214.0	231.0	185	214	231
136.0	165.0	185.0	136	165	185
142.0	171.0	188.0	142	171	188
162.0	187.0	204.0	162	187	204
26.0	48.0	63.0	26	48	63
110.0	129.0	141.0	110	129	141
100.0	112.0	124.0	100	112	124
141.0	149.0	160.0	141	149	160
155.0	160.0	172.0	155	160	172
77.0	85.0	96.0	77	85	96
113.0	124.0	136.0	113	124	136
158.0	175.0	185.0	158	175	185
137.0	158.0	167.0	137	158	167
55.0	78.0	88.0	55	78	88
112.0	138.0	150.0	112	138	150
114.0	141.0	157.0	114	141	157
81.0	110.0	130.0	81	110	130
183.0	214.0	235.0	183	214	235
200.0	230.0	252.0	200	230	252
148.0	179.0	199.0	148	179	199
155.0	187.0	204.0	155	187	204
83.0	115.0	127.0	83	115	127
87.0	120.0	127.0	87	120	127
128.0	159.0	162.0	128	159	162
117.0	150.0	144.0	117	150	144
63.0	95.0	82.0	63	95	82
66.0	94.0	78.0	66	94	78
32.0	58.0	38.0	32	58	38
51.0	73.0	50.0	51	73	50
26.0	46.0	19.0	26	46	19
47.0	66.0	37.0	47	66	37
37.0	53.0	27.0	37	53	27
51.0	68.0	48.0	51	68	48
61.0	77.0	65.0	61	77	65
46.0	60.0	58.0	46	60	58
128.0	141.0	143.0	128	141	143
94.0	105.0	109.0	94	105	109
68.0	79.0	80.0	68	79	80
12.0	22.0	17.0	12	22	17
66.0	77.0	66.0	66	77	66
94.0	105.0	90.0	94	105	90
91.0	101.0	81.0	91	101	81
41.0	51.0	29.0	41	51	29
57.0	68.0	44.0	57	68	44
73.0	81.0	56.0	73	81	56
62.0	72.0	41.0	62	72	41
48.0	56.0	24.0	48	56	24
38.0	46.0	11.0	38	46	11
79.0	87.0	50.0	79	87	50
62.0	68.0	29.0	62	68	29
75.0	81.0	40.0	75	81	40
113.0	118.0	73.0	113	118	73
80.0	83.0	34.0	80	83	34
77.0	79.0	26.0	77	79	26
128.0	131.0	73.0	128	131	73
86.0	86.0	27.0	86	86	27
124.0	123.0	62.0	124	123	62
150.0	147.0	84.0	150	147	84
111.0	107.0	47.0	111	107	47
180.0	173.0	116.0	180	173	116
182.0	172.0	118.0	182	172	118
118.0	106.0	55.0	118	106	55
97.0	84.0	36.0	97	84	36
96.0	83.0	35.0	96	83	35
118.0	107.0	58.0	118	107	58
89.0	76.0	28.0	89	76	28
73.0	57.0	15.0	73	57	15
82.0	62.0	18.0	82	62	18
138.0	114.0	65.0	138	114	65
121.0	91.0	38.0	121	91	38
137.0	101.0	40.0	137	101	40
146.0	105.0	46.0	146	105	46
117.0	76.0	19.0	117	76	19
87.0	48.0	0.0	87	48	0
119.0	83.0	25.0	119	83	25
127.0	92.0	29.0	127	92	29
179.0	145.0	74.0	179	145	74
160.0	129.0	53.0	160	129	53
159.0	131.0	50.0	159	131	50
132.0	105.0	21.0	132	105	21
158.0	133.0	48.0	158	133	48
149.0	125.0	38.0	149	125	38
122.0	101.0	8.0	122	101	8
152.0	131.0	38.0	152	131	38
131.0	109.0	21.0	131	109	21
141.0	117.0	41.0	141	117	41
152.0	128.0	66.0	152	128	66
138.0	112.0	60.0	138	112	60
176.0	152.0	103.0	176	152	103
178.0	156.0	109.0	178	156	109
199.0	181.0	137.0	199	181	137
229.0	215.0	174.0	229	215	174
180.0	170.0	133.0	180	170	133
186.0	183.0	145.0	186	183	145
154.0	158.0	122.0	154	158	122
137.0	135.0	92.0	137	135	92
140.0	123.0	63.0	140	123	63
125.0	98.0	25.0	125	98	25
151.0	126.0	41.0	151	126	41
172.0	147.0	60.0	172	147	60
152.0	124.0	45.0	152	124	45
107.0	77.0	7.0	107	77	7
138.0	107.0	47.0	138	107	47
148.0	116.0	58.0	148	116	58
116.0	83.0	22.0	116	83	22
199.0	167.0	98.0	199	167	98
148.0	118.0	35.0	148	118	35
165.0	136.0	48.0	165	136	48
155.0	123.0	41.0	155	123	41
155.0	124.0	50.0	155	124	50
136.0	105.0	43.0	136	105	43
137.0	107.0	51.0	137	107	51
124.0	99.0	44.0	124	99	44
109.0	88.0	34.0	109	88	34
93.0	77.0	23.0	93	77	23
82.0	70.0	17.0	82	70	17
75.0	69.0	19.0	75	69	19
73.0	70.0	21.0	73	70	21
64.0	65.0	17.0	64	65	17
57.0	60.0	13.0	57	60	13
42.0	47.0	4.0	42	47	4
37.0	44.0	3.0	37	44	3
97.0	106.0	67.0	97	106	67
94.0	103.0	63.0	94	103	63
58.0	66.0	29.0	58	66	29
81.0	91.0	54.0	81	91	54
47.0	58.0	20.0	47	58	20
70.0	82.0	46.0	70	82	46
64.0	77.0	40.0	64	77	40
45.0	58.0	24.0	45	58	24
39.0	52.0	18.0	39	52	18
50.0	62.0	28.0	50	62	28
37.0	49.0	16.0	37	49	16
71.0	82.0	46.0	71	82	46
70.0	80.0	45.0	70	80	45
120.0	127.0	93.0	120	127	93
85.0	92.0	58.0	85	92	58
90.0	99.0	62.0	90	99	62
85.0	91.0	55.0	85	91	55
69.0	75.0	38.0	69	75	38
48.0	54.0	17.0	48	54	17
65.0	71.0	35.0	65	71	35
58.0	64.0	28.0	58	64	28
24.0	30.0	0.0	24	30	0
75.0	86.0	48.0	75	86	48
90.0	103.0	64.0	90	103	64
74.0	87.0	49.0	74	87	49
69.0	85.0	45.0	69	85	45
74.0	89.0	52.0	74	89	52
55.0	71.0	31.0	55	71	31
40.0	56.0	14.0	40	56	14
43.0	57.0	13.0	43	57	13
41.0	53.0	8.0	41	53	8
50.0	62.0	17.0	50	62	17
60.0	69.0	27.0	60	69	27
49.0	55.0	17.0	49	55	17
67.0	68.0	36.0	67	68	36
103.0	100.0	72.0	103	100	72
96.0	91.0	65.0	96	91	65
80.0	78.0	49.0	80	78	49
96.0	94.0	63.0	96	94	63
63.0	64.0	29.0	63	64	29
54.0	56.0	19.0	54	56	19
46.0	48.0	11.0	46	48	11
46.0	47.0	13.0	46	47	13
77.0	78.0	43.0	77	78	43
59.0	60.0	26.0	59	60	26
72.0	73.0	38.0	72	73	38
93.0	94.0	61.0	93	94	61
79.0	80.0	47.0	79	80	47
84.0	84.0	52.0	84	84	52
80.0	81.0	49.0	80	81	49
26.0	29.0	0.0	26	29	0
66.0	68.0	38.0	66	68	38
48.0	53.0	22.0	48	53	22
37.0	42.0	11.0	37	42	11
50.0	58.0	23.0	50	58	23
41.0	49.0	15.0	41	49	15
48.0	56.0	22.0	48	56	22
68.0	76.0	42.0	68	76	42
59.0	67.0	30.0	59	67	30
45.0	53.0	16.0	45	53	16
47.0	52.0	16.0	47	52	16
61.0	66.0	30.0	61	66	30
52.0	59.0	20.0	52	59	20
41.0	47.0	8.0	41	47	8
42.0	46.0	8.0	42	46	8
54.0	58.0	20.0	54	58	20
47.0	49.0	10.0	47	49	10
74.0	76.0	37.0	74	76	37
77.0	76.0	38.0	77	76	38
51.0	51.0	12.0	51	51	12
72.0	69.0	31.0	72	69	31
50.0	45.0	8.0	50	45	8
70.0	62.0	26.0	70	62	26
77.0	69.0	33.0	77	69	33
74.0	66.0	30.0	74	66	30
70.0	62.0	26.0	70	62	26
65.0	55.0	19.0	65	55	19
61.0	51.0	16.0	61	51	16
69.0	60.0	22.0	69	60	22
75.0	65.0	28.0	75	65	28
62.0	50.0	11.0	62	50	11
84.0	73.0	29.0	84	73	29
84.0	73.0	27.0	84	73	27
97.0	87.0	35.0	97	87	35
95.0	86.0	30.0	95	86	30
79.0	72.0	13.0	79	72	13
90.0	84.0	25.0	90	84	25
103.0	98.0	41.0	103	98	41
100.0	95.0	42.0	100	95	42
75.0	69.0	19.0	75	69	19
83.0	77.0	31.0	83	77	31
55.0	48.0	7.0	55	48	7
89.0	81.0	43.0	89	81	43
67.0	59.0	21.0	67	59	21
48.0	41.0	2.0	48	41	2
74.0	65.0	25.0	74	65	25
72.0	62.0	22.0	72	62	22
90.0	81.0	41.0	90	81	41
80.0	70.0	32.0	80	70	32
67.0	57.0	20.0	67	57	20
28.0	21.0	0.0	28	21	0
56.0	50.0	13.0	56	50	13
60.0	55.0	18.0	60	55	18
56.0	53.0	18.0	56	53	18
40.0	39.0	3.0	40	39	3
71.0	72.0	37.0	71	72	37
18.0	19.0	0.0	18	19	0
32.0	33.0	1.0	32	33	1
71.0	75.0	42.0	71	75	42
91.0	94.0	61.0	91	94	61
133.0	136.0	103.0	133	136	103
94.0	97.0	64.0	94	97	64
49.0	54.0	21.0	49	54	21
27.0	32.0	0.0	27	32	0
59.0	65.0	31.0	59	65	31
44.0	50.0	16.0	44	50	16
49.0	55.0	19.0	49	55	19
48.0	52.0	16.0	48	52	16
46.0	44.0	10.0	46	44	10
66.0	62.0	29.0	66	62	29
103.0	97.0	67.0	103	97	67
139.0	129.0	103.0	139	129	103
185.0	176.0	152.0	185	176	152
189.0	178.0	161.0	189	178	161
208.0	195.0	186.0	208	195	186
112.0	101.0	86.0	112	101	86
139.0	131.0	97.0	139	131	97
74.0	67.0	24.0	74	67	24
42.0	36.0	0.0	42	36	0
52.0	45.0	2.0	52	45	2
50.0	41.0	0.0	50	41	0
64.0	55.0	12.0	64	55	12
101.0	92.0	47.0	101	92	47
88.0	81.0	28.0	88	81	28
95.0	89.0	25.0	95	89	25
96.0	91.0	24.0	96	91	24
90.0	86.0	26.0	90	86	26
82.0	76.0	26.0	82	76	26
121.0	114.0	73.0	121	114	73
99.0	92.0	63.0	99	92	63
122.0	116.0	97.0	122	116	97
98.0	92.0	74.0	98	92	74
216.0	214.0	183.0	216	214	183
79.0	80.0	43.0	79	80	43
82.0	85.0	50.0	82	85	50
53.0	56.0	21.0	53	56	21
79.0	85.0	47.0	79	85	47
73.0	80.0	41.0	73	80	41
101.0	108.0	65.0	101	108	65
97.0	102.0	57.0	97	102	57
130.0	134.0	85.0	130	134	85
158.0	157.0	105.0	158	157	105
105.0	102.0	46.0	105	102	46
122.0	120.0	62.0	122	120	62
124.0	123.0	64.0	124	123	64
123.0	121.0	65.0	123	121	65
137.0	134.0	83.0	137	134	83
136.0	130.0	96.0	136	130	96
94.0	88.0	84.0	94	88	84
145.0	141.0	151.0	145	141	151
166.0	172.0	181.0	166	172	181
173.0	181.0	187.0	173	181	187
178.0	187.0	184.0	178	187	184
163.0	172.0	158.0	163	172	158
133.0	137.0	109.0	133	137	109
153.0	155.0	116.0	153	155	116
186.0	187.0	141.0	186	187	141
189.0	182.0	139.0	189	182	139
128.0	114.0	78.0	128	114	78
191.0	165.0	142.0	191	165	142
210.0	178.0	166.0	210	178	166
189.0	151.0	148.0	189	151	148
129.0	92.0	98.0	129	92	98
123.0	82.0	93.0	123	82	93
133.0	85.0	101.0	133	85	101
100.0	56.0	71.0	100	56	71
93.0	62.0	72.0	93	62	72
237.0	215.0	220.0	237	215	220
166.0	155.0	152.0	166	155	152
28.0	22.0	15.0	28	22	15
121.0	116.0	106.0	121	116	106
202.0	193.0	192.0	202	193	192
83.0	67.0	79.0	83	67	79
45.0	15.0	28.0	45	15	28
74.0	29.0	26.0	74	29	26
144.0	99.0	84.0	144	99	84
181.0	152.0	134.0	181	152	134
149.0	130.0	102.0	149	130	102
193.0	177.0	135.0	193	177	135
166.0	148.0	92.0	166	148	92
217.0	194.0	127.0	217	194	127
241.0	214.0	144.0	241	214	144
245.0	214.0	152.0	245	214	152
227.0	195.0	137.0	227	195	137
205.0	172.0	119.0	205	172	119
177.0	144.0	93.0	177	144	93
222.0	191.0	140.0	222	191	140
218.0	188.0	134.0	218	188	134
196.0	168.0	112.0	196	168	112
225.0	198.0	139.0	225	198	139
213.0	186.0	127.0	213	186	127
215.0	189.0	129.0	215	189	129
213.0	186.0	127.0	213	186	127
226.0	199.0	140.0	226	199	140
209.0	180.0	121.0	209	180	121
223.0	194.0	133.0	223	194	133
209.0	179.0	114.0	209	179	114
199.0	171.0	108.0	199	171	108
223.0	196.0	139.0	223	196	139
168.0	144.0	97.0	168	144	97
103.0	83.0	47.0	103	83	47
99.0	83.0	57.0	99	83	57
89.0	77.0	56.0	89	77	56
102.0	95.0	79.0	102	95	79
87.0	89.0	77.0	87	89	77
75.0	81.0	70.0	75	81	70
68.0	74.0	63.0	68	74	63
61.0	67.0	56.0	61	67	56
66.0	72.0	61.0	66	72	61
67.0	73.0	62.0	67	73	62
74.0	80.0	69.0	74	80	69
81.0	87.0	76.0	81	87	76
63.0	76.0	56.0	63	76	56
150.0	162.0	142.0	150	162	142
48.0	61.0	41.0	48	61	41
45.0	57.0	37.0	45	57	37
43.0	55.0	35.0	43	55	35
16.0	31.0	10.0	16	31	10
42.0	59.0	37.0	42	59	37
29.0	46.0	24.0	29	46	24
3.0	22.0	0.0	3	22	0
30.0	50.0	25.0	30	50	25
55.0	75.0	50.0	55	75	50
51.0	71.0	46.0	51	71	46
25.0	43.0	19.0	25	43	19
18.0	36.0	12.0	18	36	12
26.0	41.0	16.0	26	41	16
41.0	55.0	30.0	41	55	30
65.0	78.0	53.0	65	78	53
36.0	47.0	23.0	36	47	23
59.0	70.0	44.0	59	70	44
62.0	71.0	45.0	62	71	45
95.0	103.0	78.0	95	103	78
82.0	90.0	67.0	82	90	67
69.0	77.0	54.0	69	77	54
63.0	73.0	51.0	63	73	51
74.0	88.0	69.0	74	88	69
99.0	115.0	100.0	99	115	100
48.0	66.0	53.0	48	66	53
57.0	78.0	64.0	57	78	64
118.0	136.0	123.0	118	136	123
72.0	89.0	79.0	72	89	79
35.0	53.0	45.0	35	53	45
41.0	58.0	54.0	41	58	54
35.0	48.0	50.0	35	48	50
82.0	95.0	104.0	82	95	104
32.0	44.0	56.0	32	44	56
23.0	34.0	51.0	23	34	51
85.0	93.0	113.0	85	93	113
55.0	63.0	85.0	55	63	85
50.0	60.0	84.0	50	60	84
31.0	42.0	57.0	31	42	57
38.0	55.0	47.0	38	55	47
78.0	98.0	78.0	78	98	78
24.0	43.0	23.0	24	43	23
76.0	97.0	76.0	76	97	76
28.0	50.0	29.0	28	50	29
24.0	43.0	21.0	24	43	21
87.0	107.0	80.0	87	107	80
67.0	86.0	57.0	67	86	57
28.0	44.0	16.0	28	44	16
98.0	112.0	87.0	98	112	87
59.0	69.0	50.0	59	69	50
42.0	51.0	39.0	42	51	39
79.0	89.0	83.0	79	89	83
136.0	150.0	150.0	136	150	150
140.0	157.0	161.0	140	157	161
222.0	243.0	252.0	222	243	252
208.0	231.0	244.0	208	231	244
152.0	179.0	193.0	152	179	193
60.0	87.0	103.0	60	87	103
221.0	248.0	255.0	221	248	255
88.0	111.0	124.0	88	111	124
74.0	95.0	106.0	74	95	106
78.0	101.0	112.0	78	101	112
166.0	190.0	200.0	166	190	200
213.0	236.0	247.0	213	236	247
149.0	172.0	183.0	149	172	183
166.0	189.0	202.0	166	189	202
171.0	194.0	207.0	171	194	207
214.0	242.0	253.0	214	242	253
152.0	182.0	195.0	152	182	195
164.0	195.0	210.0	164	195	210
173.0	204.0	223.0	173	204	223
168.0	199.0	220.0	168	199	220
138.0	169.0	190.0	138	169	190
177.0	205.0	227.0	177	205	227
164.0	193.0	213.0	164	193	213
127.0	156.0	171.0	127	156	171
27.0	57.0	67.0	27	57	67
71.0	102.0	107.0	71	102	107
63.0	95.0	93.0	63	95	93
89.0	120.0	111.0	89	120	111
61.0	91.0	76.0	61	91	76
42.0	70.0	51.0	42	70	51
42.0	69.0	46.0	42	69	46
75.0	97.0	73.0	75	97	73
24.0	44.0	19.0	24	44	19
18.0	36.0	12.0	18	36	12
59.0	77.0	53.0	59	77	53
99.0	116.0	96.0	99	116	96
54.0	70.0	58.0	54	70	58
62.0	74.0	70.0	62	74	70
77.0	88.0	89.0	77	88	89
57.0	68.0	69.0	57	68	69
1.0	13.0	9.0	1	13	9
70.0	81.0	73.0	70	81	73
88.0	99.0	86.0	88	99	86
39.0	49.0	32.0	39	49	32
60.0	71.0	49.0	60	71	49
57.0	65.0	44.0	57	65	44
40.0	48.0	25.0	40	48	25
40.0	49.0	21.0	40	49	21
66.0	75.0	44.0	66	75	44
79.0	86.0	54.0	79	86	54
68.0	76.0	42.0	68	76	42
100.0	108.0	71.0	100	108	71
75.0	84.0	45.0	75	84	45
79.0	88.0	46.0	79	88	46
150.0	158.0	112.0	150	158	112
99.0	105.0	57.0	99	105	57
66.0	69.0	21.0	66	69	21
96.0	100.0	49.0	96	100	49
85.0	87.0	36.0	85	87	36
101.0	100.0	50.0	101	100	50
183.0	179.0	130.0	183	179	130
166.0	163.0	112.0	166	163	112
198.0	193.0	142.0	198	193	142
186.0	177.0	132.0	186	177	132
90.0	78.0	36.0	90	78	36
95.0	84.0	44.0	95	84	44
123.0	112.0	68.0	123	112	68
85.0	75.0	22.0	85	75	22
102.0	89.0	43.0	102	89	43
102.0	84.0	58.0	102	84	58
84.0	61.0	46.0	84	61	46
116.0	91.0	74.0	116	91	74
77.0	52.0	24.0	77	52	24
153.0	129.0	80.0	153	129	80
134.0	107.0	50.0	134	107	50
143.0	110.0	60.0	143	110	60
96.0	60.0	11.0	96	60	11
102.0	65.0	11.0	102	65	11
174.0	136.0	76.0	174	136	76
174.0	138.0	70.0	174	138	70
167.0	134.0	58.0	167	134	58
160.0	127.0	47.0	160	127	47
129.0	99.0	18.0	129	99	18
139.0	109.0	28.0	139	109	28
127.0	99.0	17.0	127	99	17
130.0	103.0	19.0	130	103	19
151.0	126.0	41.0	151	126	41
165.0	139.0	57.0	165	139	57
175.0	149.0	71.0	175	149	71
147.0	121.0	53.0	147	121	53
195.0	171.0	111.0	195	171	111
208.0	187.0	133.0	208	187	133
182.0	163.0	113.0	182	163	113
158.0	143.0	96.0	158	143	96
158.0	145.0	97.0	158	145	97
99.0	91.0	39.0	99	91	39
130.0	125.0	69.0	130	125	69
91.0	87.0	29.0	91	87	29
114.0	105.0	38.0	114	105	38
121.0	105.0	19.0	121	105	19
145.0	124.0	31.0	145	124	31
179.0	158.0	67.0	179	158	67
213.0	188.0	106.0	213	188	106
236.0	208.0	138.0	236	208	138
160.0	130.0	74.0	160	130	74
163.0	131.0	92.0	163	131	92
213.0	176.0	148.0	213	176	148
189.0	152.0	128.0	189	152	128
237.0	202.0	164.0	237	202	164
168.0	139.0	69.0	168	139	69
193.0	164.0	78.0	193	164	78
165.0	137.0	44.0	165	137	44
175.0	145.0	60.0	175	145	60
129.0	99.0	32.0	129	99	32
119.0	91.0	35.0	119	91	35
118.0	95.0	39.0	118	95	39
108.0	89.0	34.0	108	89	34
93.0	79.0	24.0	93	79	24
81.0	72.0	20.0	81	72	20
78.0	69.0	22.0	78	69	22
73.0	69.0	23.0	73	69	23
68.0	66.0	21.0	68	66	21
60.0	63.0	19.0	60	63	19
51.0	55.0	13.0	51	55	13
65.0	72.0	31.0	65	72	31
66.0	75.0	35.0	66	75	35
81.0	92.0	52.0	81	92	52
71.0	82.0	44.0	71	82	44
59.0	69.0	31.0	59	69	31
56.0	68.0	32.0	56	68	32
12.0	27.0	0.0	12	27	0
46.0	61.0	26.0	46	61	26
54.0	69.0	36.0	54	69	36
36.0	50.0	18.0	36	50	18
44.0	58.0	26.0	44	58	26
82.0	96.0	64.0	82	96	64
48.0	60.0	26.0	48	60	26
63.0	75.0	41.0	63	75	41
86.0	96.0	63.0	86	96	63
106.0	113.0	79.0	106	113	79
57.0	65.0	30.0	57	65	30
72.0	78.0	42.0	72	78	42
75.0	80.0	44.0	75	80	44
53.0	57.0	19.0	53	57	19
101.0	104.0	67.0	101	104	67
194.0	198.0	160.0	194	198	160
71.0	77.0	39.0	71	77	39
85.0	93.0	56.0	85	93	56
102.0	112.0	75.0	102	112	75
66.0	79.0	43.0	66	79	43
66.0	79.0	43.0	66	79	43
52.0	65.0	27.0	52	65	27
30.0	43.0	5.0	30	43	5
27.0	40.0	1.0	27	40	1
50.0	63.0	22.0	50	63	22
34.0	45.0	5.0	34	45	5
54.0	63.0	24.0	54	63	24
63.0	69.0	31.0	63	69	31
68.0	71.0	36.0	68	71	36
77.0	75.0	44.0	77	75	44
106.0	99.0	72.0	106	99	72
62.0	55.0	25.0	62	55	25
59.0	53.0	23.0	59	53	23
75.0	71.0	38.0	75	71	38
68.0	67.0	31.0	68	67	31
59.0	61.0	24.0	59	61	24
49.0	50.0	13.0	49	50	13
66.0	68.0	31.0	66	68	31
79.0	80.0	43.0	79	80	43
89.0	91.0	54.0	89	91	54
122.0	123.0	89.0	122	123	89
99.0	100.0	65.0	99	100	65
81.0	82.0	48.0	81	82	48
67.0	68.0	34.0	67	68	34
75.0	76.0	44.0	75	76	44
48.0	51.0	18.0	48	51	18
57.0	61.0	28.0	57	61	28
61.0	66.0	32.0	61	66	32
34.0	39.0	6.0	34	39	6
39.0	47.0	15.0	39	47	15
66.0	73.0	41.0	66	73	41
59.0	67.0	32.0	59	67	32
21.0	28.0	0.0	21	28	0
52.0	62.0	26.0	52	62	26
89.0	97.0	63.0	89	97	63
50.0	58.0	21.0	50	58	21
48.0	57.0	20.0	48	57	20
48.0	54.0	17.0	48	54	17
63.0	69.0	33.0	63	69	33
46.0	50.0	12.0	46	50	12
42.0	46.0	8.0	42	46	8
55.0	59.0	21.0	55	59	21
57.0	58.0	21.0	57	58	21
58.0	57.0	21.0	58	57	21
58.0	57.0	23.0	58	57	23
48.0	44.0	14.0	48	44	14
72.0	65.0	38.0	72	65	38
58.0	51.0	24.0	58	51	24
57.0	50.0	25.0	57	50	25
62.0	52.0	28.0	62	52	28
81.0	71.0	45.0	81	71	45
46.0	36.0	10.0	46	36	10
64.0	56.0	24.0	64	56	24
60.0	49.0	17.0	60	49	17
72.0	62.0	24.0	72	62	24
72.0	62.0	22.0	72	62	22
60.0	51.0	9.0	60	51	9
67.0	56.0	12.0	67	56	12
73.0	63.0	16.0	73	63	16
76.0	69.0	19.0	76	69	19
76.0	71.0	18.0	76	71	18
71.0	66.0	13.0	71	66	13
98.0	95.0	43.0	98	95	43
39.0	36.0	0.0	39	36	0
69.0	65.0	16.0	69	65	16
49.0	45.0	0.0	49	45	0
29.0	24.0	0.0	29	24	0
41.0	36.0	0.0	41	36	0
74.0	69.0	30.0	74	69	30
86.0	81.0	42.0	86	81	42
41.0	34.0	0.0	41	34	0
58.0	51.0	13.0	58	51	13
92.0	84.0	48.0	92	84	48
131.0	122.0	89.0	131	122	89
27.0	21.0	0.0	27	21	0
36.0	32.0	0.0	36	32	0
44.0	40.0	7.0	44	40	7
35.0	33.0	4.0	35	33	4
74.0	74.0	45.0	74	74	45
98.0	98.0	68.0	98	98	68
12.0	14.0	0.0	12	14	0
41.0	43.0	15.0	41	43	15
34.0	36.0	8.0	34	36	8
44.0	46.0	18.0	44	46	18
64.0	67.0	39.0	64	67	39
49.0	54.0	25.0	49	54	25
51.0	56.0	27.0	51	56	27
54.0	58.0	29.0	54	58	29
56.0	61.0	30.0	56	61	30
62.0	67.0	35.0	62	67	35
48.0	51.0	18.0	48	51	18
59.0	62.0	27.0	59	62	27
88.0	89.0	55.0	88	89	55
84.0	83.0	47.0	84	83	47
63.0	60.0	25.0	63	60	25
80.0	76.0	41.0	80	76	41
74.0	69.0	34.0	74	69	34
67.0	61.0	29.0	67	61	29
50.0	43.0	14.0	50	43	14
84.0	77.0	45.0	84	77	45
83.0	77.0	42.0	83	77	42
55.0	48.0	7.0	55	48	7
56.0	50.0	4.0	56	50	4
58.0	52.0	7.0	58	52	7
75.0	69.0	23.0	75	69	23
85.0	76.0	31.0	85	76	31
81.0	72.0	27.0	81	72	27
87.0	79.0	31.0	87	79	31
94.0	86.0	34.0	94	86	34
94.0	86.0	27.0	94	86	27
92.0	86.0	24.0	92	86	24
95.0	89.0	29.0	95	89	29
89.0	82.0	28.0	89	82	28
85.0	76.0	29.0	85	76	29
75.0	68.0	25.0	75	68	25
157.0	150.0	110.0	157	150	110
80.0	76.0	34.0	80	76	34
143.0	139.0	95.0	143	139	95
91.0	90.0	45.0	91	90	45
103.0	103.0	57.0	103	103	57
68.0	69.0	21.0	68	69	21
79.0	83.0	31.0	79	83	31
60.0	65.0	9.0	60	65	9
70.0	73.0	15.0	70	73	15
85.0	88.0	26.0	85	88	26
93.0	94.0	28.0	93	94	28
104.0	102.0	30.0	104	102	30
117.0	114.0	35.0	117	114	35
125.0	123.0	41.0	125	123	41
125.0	121.0	48.0	125	121	48
117.0	112.0	47.0	117	112	47
138.0	130.0	81.0	138	130	81
124.0	115.0	86.0	124	115	86
100.0	90.0	91.0	100	90	91
131.0	126.0	139.0	131	126	139
173.0	174.0	183.0	173	174	183
182.0	188.0	190.0	182	188	190
154.0	161.0	156.0	154	161	156
170.0	177.0	161.0	170	177	161
202.0	205.0	174.0	202	205	174
200.0	204.0	164.0	200	204	164
210.0	218.0	167.0	210	218	167
172.0	170.0	123.0	172	170	123
147.0	123.0	87.0	147	123	87
172.0	129.0	109.0	172	129	109
143.0	89.0	87.0	143	89	87
125.0	67.0	75.0	125	67	75
129.0	79.0	93.0	129	79	93
157.0	120.0	135.0	157	120	135
157.0	142.0	154.0	157	142	154
64.0	58.0	67.0	64	58	67
70.0	62.0	69.0	70	62	69
241.0	226.0	234.0	241	226	234
202.0	179.0	182.0	202	179	182
49.0	17.0	19.0	49	17	19
92.0	54.0	51.0	92	54	51
100.0	65.0	58.0	100	65	58
75.0	54.0	43.0	75	54	43
120.0	105.0	87.0	120	105	87
189.0	167.0	145.0	189	167	145
204.0	183.0	156.0	204	183	156
193.0	175.0	147.0	193	175	147
166.0	150.0	119.0	166	150	119
191.0	179.0	140.0	191	179	140
139.0	126.0	80.0	139	126	80
148.0	130.0	84.0	148	130	84
131.0	111.0	63.0	131	111	63
106.0	83.0	39.0	106	83	39
86.0	64.0	17.0	86	64	17
92.0	68.0	19.0	92	68	19
162.0	139.0	87.0	162	139	87
231.0	208.0	154.0	231	208	154
204.0	181.0	125.0	204	181	125
204.0	180.0	122.0	204	180	122
224.0	200.0	140.0	224	200	140
213.0	188.0	128.0	213	188	128
213.0	188.0	128.0	213	188	128
220.0	193.0	134.0	220	193	134
222.0	196.0	136.0	222	196	136
224.0	195.0	136.0	224	195	136
222.0	193.0	132.0	222	193	132
207.0	176.0	112.0	207	176	112
210.0	182.0	118.0	210	182	118
207.0	180.0	123.0	207	180	123
124.0	99.0	53.0	124	99	53
105.0	86.0	49.0	105	86	49
114.0	98.0	72.0	114	98	72
90.0	80.0	58.0	90	80	58
102.0	95.0	79.0	102	95	79
98.0	98.0	85.0	98	98	85
76.0	81.0	68.0	76	81	68
60.0	64.0	52.0	60	64	52
61.0	66.0	53.0	61	66	53
60.0	64.0	52.0	60	64	52
78.0	82.0	69.0	78	82	69
65.0	69.0	56.0	65	69	56
83.0	88.0	75.0	83	88	75
31.0	43.0	23.0	31	43	23
103.0	115.0	95.0	103	115	95
45.0	57.0	37.0	45	57	37
20.0	33.0	13.0	20	33	13
25.0	37.0	17.0	25	37	17
46.0	60.0	39.0	46	60	39
35.0	50.0	29.0	35	50	29
27.0	44.0	22.0	27	44	22
40.0	58.0	36.0	40	58	36
40.0	60.0	37.0	40	60	37
66.0	86.0	61.0	66	86	61
37.0	57.0	32.0	37	57	32
51.0	69.0	44.0	51	69	44
36.0	53.0	29.0	36	53	29
30.0	46.0	20.0	30	46	20
37.0	53.0	27.0	37	53	27
30.0	43.0	18.0	30	43	18
47.0	60.0	35.0	47	60	35
74.0	86.0	59.0	74	86	59
64.0	75.0	49.0	64	75	49
75.0	84.0	58.0	75	84	58
61.0	70.0	44.0	61	70	44
44.0	55.0	31.0	44	55	31
43.0	55.0	33.0	43	55	33
46.0	60.0	43.0	46	60	43
15.0	31.0	16.0	15	31	16
19.0	37.0	24.0	19	37	24
47.0	65.0	54.0	47	65	54
28.0	46.0	36.0	28	46	36
58.0	75.0	67.0	58	75	67
120.0	137.0	132.0	120	137	132
30.0	46.0	43.0	30	46	43
67.0	80.0	85.0	67	80	85
56.0	68.0	77.0	56	68	77
102.0	114.0	128.0	102	114	128
67.0	78.0	95.0	67	78	95
212.0	220.0	240.0	212	220	240
55.0	63.0	83.0	55	63	83
31.0	41.0	63.0	31	41	63
79.0	91.0	99.0	79	91	99
41.0	60.0	40.0	41	60	40
37.0	58.0	26.0	37	58	26
54.0	77.0	44.0	54	77	44
114.0	137.0	107.0	114	137	107
70.0	92.0	67.0	70	92	67
58.0	81.0	55.0	58	81	55
51.0	74.0	46.0	51	74	46
77.0	100.0	69.0	77	100	69
39.0	60.0	30.0	39	60	30
110.0	128.0	104.0	110	128	104
57.0	72.0	53.0	57	72	53
32.0	45.0	34.0	32	45	34
141.0	155.0	150.0	141	155	150
60.0	76.0	77.0	60	76	77
76.0	93.0	99.0	76	93	99
178.0	197.0	204.0	178	197	204
210.0	231.0	240.0	210	231	240
122.0	146.0	156.0	122	146	156
81.0	108.0	121.0	81	108	121
63.0	90.0	104.0	63	90	104
7.0	30.0	43.0	7	30	43
65.0	90.0	102.0	65	90	102
167.0	194.0	206.0	167	194	206
199.0	229.0	239.0	199	229	239
181.0	214.0	223.0	181	214	223
179.0	209.0	222.0	179	209	222
185.0	213.0	226.0	185	213	226
196.0	223.0	239.0	196	223	239
120.0	152.0	167.0	120	152	167
154.0	188.0	204.0	154	188	204
56.0	89.0	108.0	56	89	108
167.0	198.0	219.0	167	198	219
80.0	110.0	134.0	80	110	134
183.0	210.0	235.0	183	210	235
201.0	229.0	252.0	201	229	252
167.0	193.0	214.0	167	193	214
173.0	200.0	215.0	173	200	215
120.0	148.0	157.0	120	148	157
76.0	105.0	109.0	76	105	109
37.0	68.0	64.0	37	68	64
24.0	53.0	41.0	24	53	41
49.0	76.0	60.0	49	76	60
63.0	89.0	69.0	63	89	69
59.0	85.0	62.0	59	85	62
35.0	59.0	37.0	35	59	37
35.0	57.0	34.0	35	57	34
44.0	63.0	41.0	44	63	41
58.0	75.0	53.0	58	75	53
89.0	106.0	87.0	89	106	87
70.0	86.0	71.0	70	86	71
46.0	58.0	52.0	46	58	52
37.0	49.0	45.0	37	49	45
55.0	67.0	63.0	55	67	63
34.0	44.0	39.0	34	44	39
61.0	72.0	59.0	61	72	59
71.0	80.0	64.0	71	80	64
42.0	52.0	30.0	42	52	30
43.0	54.0	30.0	43	54	30
48.0	56.0	33.0	48	56	33
53.0	61.0	36.0	53	61	36
33.0	42.0	14.0	33	42	14
75.0	84.0	54.0	75	84	54
84.0	94.0	61.0	84	94	61
56.0	66.0	31.0	56	66	31
61.0	72.0	34.0	61	72	34
59.0	70.0	29.0	59	70	29
86.0	98.0	55.0	86	98	55
39.0	49.0	4.0	39	49	4
57.0	64.0	19.0	57	64	19
73.0	78.0	33.0	73	78	33
104.0	109.0	64.0	104	109	64
82.0	85.0	41.0	82	85	41
80.0	81.0	37.0	80	81	37
91.0	89.0	47.0	91	89	47
171.0	169.0	124.0	171	169	124
102.0	98.0	54.0	102	98	54
76.0	69.0	28.0	76	69	28
114.0	104.0	66.0	114	104	66
67.0	55.0	20.0	67	55	20
104.0	90.0	49.0	104	90	49
103.0	90.0	31.0	103	90	31
154.0	138.0	82.0	154	138	82
144.0	121.0	90.0	144	121	90
79.0	52.0	36.0	79	52	36
78.0	50.0	39.0	78	50	39
83.0	54.0	36.0	83	54	36
133.0	109.0	69.0	133	109	69
178.0	154.0	108.0	178	154	108
125.0	95.0	51.0	125	95	51
78.0	44.0	0.0	78	44	0
130.0	92.0	43.0	130	92	43
124.0	85.0	30.0	124	85	30
160.0	123.0	58.0	160	123	58
181.0	147.0	76.0	181	147	76
146.0	113.0	37.0	146	113	37
139.0	108.0	30.0	139	108	30
157.0	127.0	46.0	157	127	46
165.0	137.0	58.0	165	137	58
118.0	90.0	11.0	118	90	11
121.0	96.0	16.0	121	96	16
161.0	135.0	55.0	161	135	55
198.0	172.0	95.0	198	172	95
145.0	121.0	47.0	145	121	47
153.0	130.0	63.0	153	130	63
229.0	208.0	154.0	229	208	154
168.0	149.0	101.0	168	149	101
136.0	119.0	72.0	136	119	72
101.0	88.0	38.0	101	88	38
109.0	101.0	42.0	109	101	42
120.0	112.0	49.0	120	112	49
120.0	108.0	39.0	120	108	39
108.0	96.0	16.0	108	96	16
135.0	122.0	21.0	135	122	21
139.0	122.0	18.0	139	122	18
159.0	140.0	48.0	159	140	48
206.0	182.0	106.0	206	182	106
219.0	192.0	131.0	219	192	131
165.0	133.0	87.0	165	133	87
119.0	86.0	52.0	119	86	52
176.0	141.0	117.0	176	141	117
220.0	185.0	165.0	220	185	165
255.0	228.0	197.0	255	228	197
196.0	165.0	105.0	196	165	105
171.0	143.0	63.0	171	143	63
157.0	130.0	43.0	157	130	43
139.0	112.0	28.0	139	112	28
123.0	95.0	27.0	123	95	27
132.0	108.0	46.0	132	108	46
105.0	85.0	23.0	105	85	23
106.0	91.0	32.0	106	91	32
103.0	91.0	36.0	103	91	36
94.0	84.0	33.0	94	84	33
85.0	76.0	29.0	85	76	29
74.0	70.0	26.0	74	70	26
74.0	72.0	29.0	74	72	29
70.0	72.0	30.0	70	72	30
67.0	71.0	31.0	67	71	31
61.0	70.0	31.0	61	70	31
67.0	78.0	38.0	67	78	38
62.0	73.0	35.0	62	73	35
47.0	58.0	20.0	47	58	20
44.0	57.0	21.0	44	57	21
47.0	62.0	25.0	47	62	25
32.0	49.0	13.0	32	49	13
49.0	66.0	33.0	49	66	33
43.0	60.0	27.0	43	60	27
67.0	83.0	50.0	67	83	50
61.0	77.0	44.0	61	77	44
59.0	73.0	41.0	59	73	41
43.0	57.0	25.0	43	57	25
50.0	62.0	28.0	50	62	28
35.0	47.0	13.0	35	47	13
62.0	72.0	37.0	62	72	37
65.0	73.0	38.0	65	73	38
72.0	78.0	42.0	72	78	42
52.0	58.0	22.0	52	58	22
60.0	64.0	26.0	60	64	26
165.0	168.0	131.0	165	168	131
73.0	76.0	39.0	73	76	39
133.0	139.0	100.0	133	139	100
116.0	124.0	87.0	116	124	87
28.0	39.0	1.0	28	39	1
53.0	63.0	28.0	53	63	28
62.0	72.0	37.0	62	72	37
42.0	53.0	15.0	42	53	15
38.0	51.0	13.0	38	51	13
44.0	57.0	21.0	44	57	21
53.0	63.0	28.0	53	63	28
56.0	66.0	31.0	56	66	31
55.0	63.0	29.0	55	63	29
56.0	60.0	24.0	56	60	24
59.0	61.0	24.0	59	61	24
59.0	56.0	18.0	59	56	18
107.0	100.0	61.0	107	100	61
75.0	68.0	25.0	75	68	25
91.0	84.0	41.0	91	84	41
77.0	72.0	32.0	77	72	32
69.0	66.0	29.0	69	66	29
61.0	60.0	22.0	61	60	22
53.0	55.0	16.0	53	55	16
66.0	68.0	31.0	66	68	31
82.0	84.0	47.0	82	84	47
89.0	91.0	54.0	89	91	54
158.0	159.0	123.0	158	159	123
79.0	80.0	45.0	79	80	45
86.0	87.0	52.0	86	87	52
81.0	82.0	48.0	81	82	48
61.0	62.0	28.0	61	62	28
57.0	61.0	28.0	57	61	28
42.0	45.0	13.0	42	45	13
92.0	97.0	64.0	92	97	64
63.0	68.0	35.0	63	68	35
59.0	66.0	34.0	59	66	34
46.0	54.0	22.0	46	54	22
39.0	47.0	13.0	39	47	13
40.0	48.0	14.0	40	48	14
38.0	48.0	13.0	38	48	13
61.0	71.0	36.0	61	71	36
54.0	62.0	28.0	54	62	28
62.0	71.0	34.0	62	71	34
56.0	62.0	26.0	56	62	26
64.0	70.0	34.0	64	70	34
34.0	38.0	0.0	34	38	0
57.0	61.0	24.0	57	61	24
55.0	59.0	21.0	55	59	21
57.0	58.0	21.0	57	58	21
57.0	58.0	23.0	57	58	23
58.0	57.0	23.0	58	57	23
48.0	44.0	16.0	48	44	16
70.0	65.0	40.0	70	65	40
58.0	51.0	26.0	58	51	26
57.0	49.0	27.0	57	49	27
77.0	67.0	45.0	77	67	45
69.0	59.0	35.0	69	59	35
57.0	48.0	24.0	57	48	24
49.0	40.0	11.0	49	40	11
81.0	72.0	39.0	81	72	39
70.0	62.0	26.0	70	62	26
70.0	63.0	24.0	70	63	24
81.0	74.0	33.0	81	74	33
83.0	74.0	32.0	83	74	32
89.0	80.0	38.0	89	80	38
93.0	87.0	41.0	93	87	41
92.0	88.0	41.0	92	88	41
87.0	83.0	37.0	87	83	37
55.0	54.0	7.0	55	54	7
77.0	76.0	29.0	77	76	29
37.0	38.0	0.0	37	38	0
55.0	55.0	12.0	55	55	12
64.0	64.0	21.0	64	64	21
69.0	69.0	28.0	69	69	28
66.0	66.0	27.0	66	66	27
82.0	79.0	43.0	82	79	43
76.0	73.0	38.0	76	73	38
100.0	96.0	61.0	100	96	61
45.0	41.0	6.0	45	41	6
62.0	59.0	26.0	62	59	26
58.0	57.0	25.0	58	57	25
56.0	56.0	24.0	56	56	24
38.0	38.0	9.0	38	38	9
44.0	45.0	20.0	44	45	20
13.0	15.0	0.0	13	15	0
12.0	14.0	0.0	12	14	0
16.0	17.0	0.0	16	17	0
48.0	50.0	26.0	48	50	26
37.0	38.0	15.0	37	38	15
41.0	43.0	17.0	41	43	17
57.0	59.0	34.0	57	59	34
24.0	29.0	2.0	24	29	2
33.0	37.0	10.0	33	37	10
44.0	49.0	20.0	44	49	20
54.0	56.0	28.0	54	56	28
38.0	40.0	10.0	38	40	10
73.0	75.0	45.0	73	75	45
79.0	80.0	47.0	79	80	47
50.0	51.0	14.0	50	51	14
39.0	38.0	0.0	39	38	0
71.0	71.0	30.0	71	71	30
59.0	56.0	16.0	59	56	16
55.0	53.0	13.0	55	53	13
67.0	62.0	25.0	67	62	25
71.0	66.0	27.0	71	66	27
70.0	65.0	23.0	70	65	23
37.0	33.0	0.0	37	33	0
45.0	41.0	0.0	45	41	0
58.0	54.0	8.0	58	54	8
73.0	69.0	23.0	73	69	23
75.0	69.0	23.0	75	69	23
92.0	83.0	38.0	92	83	38
66.0	58.0	10.0	66	58	10
67.0	59.0	9.0	67	59	9
88.0	81.0	26.0	88	81	26
93.0	84.0	28.0	93	84	28
86.0	77.0	19.0	86	77	19
91.0	82.0	24.0	91	82	24
94.0	85.0	29.0	94	85	29
93.0	83.0	32.0	93	83	32
94.0	84.0	33.0	94	84	33
78.0	68.0	17.0	78	68	17
101.0	93.0	41.0	101	93	41
72.0	64.0	12.0	72	64	12
90.0	83.0	31.0	90	83	31
91.0	86.0	31.0	91	86	31
74.0	69.0	12.0	74	69	12
74.0	71.0	6.0	74	71	6
96.0	94.0	22.0	96	94	22
91.0	90.0	15.0	91	90	15
93.0	92.0	15.0	93	92	15
114.0	110.0	32.0	114	110	32
111.0	109.0	25.0	111	109	25
111.0	107.0	15.0	111	107	15
109.0	106.0	14.0	109	106	14
121.0	116.0	34.0	121	116	34
129.0	122.0	52.0	129	122	52
138.0	131.0	78.0	138	131	78
98.0	89.0	62.0	98	89	62
124.0	114.0	118.0	124	114	118
138.0	131.0	145.0	138	131	145
121.0	120.0	127.0	121	120	127
151.0	155.0	156.0	151	155	156
191.0	197.0	188.0	191	197	188
199.0	204.0	186.0	199	204	186
188.0	191.0	160.0	188	191	160
187.0	189.0	150.0	187	189	150
181.0	185.0	136.0	181	185	136
177.0	168.0	121.0	177	168	121
127.0	96.0	63.0	127	96	63
126.0	79.0	61.0	126	79	61
119.0	64.0	62.0	119	64	62
129.0	80.0	87.0	129	80	87
70.0	36.0	48.0	70	36	48
170.0	155.0	167.0	170	155	167
145.0	155.0	161.0	145	155	161
22.0	40.0	43.0	22	40	43
58.0	65.0	67.0	58	65	67
194.0	189.0	191.0	194	189	191
118.0	97.0	98.0	118	97	98
62.0	29.0	26.0	62	29	26
72.0	27.0	21.0	72	27	21
124.0	86.0	71.0	124	86	71
166.0	148.0	122.0	166	148	122
160.0	152.0	118.0	160	152	118
126.0	118.0	84.0	126	118	84
86.0	79.0	43.0	86	79	43
89.0	79.0	44.0	89	79	44
85.0	74.0	39.0	85	74	39
111.0	102.0	62.0	111	102	62
80.0	69.0	27.0	80	69	27
146.0	128.0	84.0	146	128	84
165.0	145.0	99.0	165	145	99
191.0	168.0	124.0	191	168	124
211.0	187.0	140.0	211	187	140
234.0	210.0	161.0	234	210	161
217.0	193.0	142.0	217	193	142
217.0	194.0	140.0	217	194	140
193.0	168.0	112.0	193	168	112
204.0	180.0	122.0	204	180	122
225.0	201.0	141.0	225	201	141
213.0	188.0	128.0	213	188	128
213.0	186.0	127.0	213	186	127
219.0	192.0	133.0	219	192	133
222.0	192.0	134.0	222	192	134
224.0	195.0	136.0	224	195	136
224.0	195.0	134.0	224	195	134
205.0	174.0	109.0	205	174	109
216.0	187.0	124.0	216	187	124
201.0	174.0	117.0	201	174	117
126.0	102.0	55.0	126	102	55
107.0	88.0	53.0	107	88	53
109.0	92.0	66.0	109	92	66
97.0	87.0	65.0	97	87	65
98.0	92.0	76.0	98	92	76
67.0	67.0	53.0	67	67	53
79.0	81.0	69.0	79	81	69
80.0	84.0	71.0	80	84	71
71.0	75.0	62.0	71	75	62
58.0	62.0	49.0	58	62	49
47.0	52.0	39.0	47	52	39
75.0	80.0	67.0	75	80	67
64.0	68.0	55.0	64	68	55
44.0	59.0	40.0	44	59	40
37.0	52.0	33.0	37	52	33
41.0	55.0	37.0	41	55	37
46.0	60.0	41.0	46	60	41
42.0	56.0	38.0	42	56	38
20.0	34.0	16.0	20	34	16
30.0	45.0	26.0	30	45	26
37.0	52.0	33.0	37	52	33
45.0	62.0	41.0	45	62	41
23.0	40.0	18.0	23	40	18
27.0	44.0	20.0	27	44	20
34.0	51.0	27.0	34	51	27
51.0	69.0	44.0	51	69	44
36.0	53.0	29.0	36	53	29
30.0	46.0	20.0	30	46	20
37.0	53.0	27.0	37	53	27
26.0	40.0	12.0	26	40	12
58.0	71.0	44.0	58	71	44
64.0	75.0	49.0	64	75	49
67.0	79.0	50.0	67	79	50
76.0	87.0	58.0	76	87	58
55.0	66.0	39.0	55	66	39
55.0	65.0	41.0	55	65	41
67.0	80.0	57.0	67	80	57
83.0	97.0	79.0	83	97	79
54.0	70.0	56.0	54	70	56
47.0	65.0	52.0	47	65	52
63.0	81.0	70.0	63	81	70
75.0	91.0	81.0	75	91	81
67.0	82.0	75.0	67	82	75
30.0	44.0	40.0	30	44	40
31.0	45.0	43.0	31	45	43
131.0	147.0	148.0	131	147	148
189.0	204.0	210.0	189	204	210
124.0	138.0	149.0	124	138	149
7.0	18.0	32.0	7	18	32
1.0	12.0	27.0	1	12	27
6.0	17.0	31.0	6	17	31
30.0	41.0	56.0	30	41	56
63.0	79.0	81.0	63	79	81
35.0	55.0	34.0	35	55	34
31.0	55.0	22.0	31	55	22
43.0	67.0	34.0	43	67	34
33.0	56.0	25.0	33	56	25
33.0	55.0	27.0	33	55	27
80.0	103.0	77.0	80	103	77
66.0	89.0	61.0	66	89	61
77.0	100.0	69.0	77	100	69
88.0	108.0	81.0	88	108	81
35.0	55.0	30.0	35	55	30
77.0	93.0	76.0	77	93	76
63.0	78.0	68.0	63	78	68
108.0	124.0	121.0	108	124	121
100.0	118.0	121.0	100	118	121
62.0	79.0	87.0	62	79	87
92.0	111.0	120.0	92	111	120
191.0	213.0	221.0	191	213	221
58.0	81.0	92.0	58	81	92
94.0	120.0	129.0	94	120	129
117.0	142.0	154.0	117	142	154
109.0	134.0	146.0	109	134	146
164.0	192.0	203.0	164	192	203
167.0	197.0	210.0	167	197	210
170.0	200.0	212.0	170	200	212
148.0	181.0	193.0	148	181	193
97.0	129.0	141.0	97	129	141
222.0	252.0	255.0	222	252	255
183.0	212.0	229.0	183	212	229
150.0	184.0	202.0	150	184	202
158.0	191.0	212.0	158	191	212
205.0	238.0	255.0	205	238	255
84.0	115.0	139.0	84	115	139
143.0	170.0	198.0	143	170	198
132.0	157.0	183.0	132	157	183
159.0	184.0	208.0	159	184	208
172.0	196.0	215.0	172	196	215
36.0	61.0	75.0	36	61	75
45.0	71.0	78.0	45	71	78
29.0	56.0	56.0	29	56	56
23.0	51.0	44.0	23	51	44
24.0	53.0	41.0	24	53	41
39.0	67.0	51.0	39	67	51
42.0	68.0	48.0	42	68	48
28.0	54.0	34.0	28	54	34
29.0	52.0	33.0	29	52	33
42.0	64.0	43.0	42	64	43
51.0	70.0	50.0	51	70	50
49.0	69.0	48.0	49	69	48
60.0	77.0	58.0	60	77	58
155.0	171.0	154.0	155	171	154
64.0	77.0	66.0	64	77	66
37.0	47.0	39.0	37	47	39
54.0	65.0	57.0	54	65	57
77.0	88.0	78.0	77	88	78
51.0	60.0	46.0	51	60	46
44.0	54.0	35.0	44	54	35
31.0	39.0	16.0	31	39	16
41.0	50.0	24.0	41	50	24
67.0	76.0	48.0	67	76	48
66.0	75.0	46.0	66	75	46
63.0	73.0	42.0	63	73	42
77.0	87.0	56.0	77	87	56
68.0	78.0	45.0	68	78	45
38.0	51.0	15.0	38	51	15
51.0	64.0	26.0	51	64	26
28.0	41.0	0.0	28	41	0
73.0	87.0	44.0	73	87	44
41.0	55.0	9.0	41	55	9
44.0	53.0	9.0	44	53	9
73.0	80.0	37.0	73	80	37
85.0	92.0	49.0	85	92	49
77.0	82.0	39.0	77	82	39
108.0	110.0	68.0	108	110	68
76.0	76.0	35.0	76	76	35
71.0	71.0	30.0	71	71	30
62.0	60.0	20.0	62	60	20
77.0	72.0	32.0	77	72	32
109.0	101.0	65.0	109	101	65
70.0	57.0	23.0	70	57	23
64.0	48.0	3.0	64	48	3
138.0	120.0	51.0	138	120	51
109.0	87.0	12.0	109	87	12
107.0	80.0	21.0	107	80	21
137.0	105.0	61.0	137	105	61
99.0	66.0	34.0	99	66	34
84.0	50.0	23.0	84	50	23
91.0	57.0	28.0	91	57	28
147.0	114.0	82.0	147	114	82
135.0	99.0	68.0	135	99	68
80.0	43.0	8.0	80	43	8
141.0	105.0	62.0	141	105	62
101.0	63.0	12.0	101	63	12
159.0	123.0	64.0	159	123	64
151.0	119.0	53.0	151	119	53
172.0	141.0	69.0	172	141	69
137.0	109.0	32.0	137	109	32
132.0	104.0	25.0	132	104	25
141.0	116.0	35.0	141	116	35
173.0	150.0	71.0	173	150	71
133.0	109.0	30.0	133	109	30
138.0	115.0	36.0	138	115	36
185.0	163.0	84.0	185	163	84
144.0	123.0	43.0	144	123	43
142.0	122.0	51.0	142	122	51
200.0	178.0	131.0	200	178	131
162.0	138.0	101.0	162	138	101
94.0	74.0	28.0	94	74	28
93.0	73.0	23.0	93	73	23
96.0	80.0	24.0	96	80	24
111.0	96.0	33.0	111	96	33
113.0	99.0	31.0	113	99	31
103.0	89.0	7.0	103	89	7
161.0	151.0	45.0	161	151	45
181.0	169.0	64.0	181	169	64
187.0	166.0	84.0	187	166	84
216.0	192.0	128.0	216	192	128
222.0	196.0	143.0	222	196	143
115.0	86.0	41.0	115	86	41
140.0	111.0	64.0	140	111	64
213.0	184.0	137.0	213	184	137
227.0	198.0	151.0	227	198	151
194.0	163.0	114.0	194	163	114
137.0	107.0	51.0	137	107	51
169.0	140.0	80.0	169	140	80
137.0	109.0	41.0	137	109	41
135.0	110.0	41.0	135	110	41
133.0	107.0	39.0	133	107	39
102.0	81.0	13.0	102	81	13
111.0	95.0	27.0	111	95	27
114.0	101.0	39.0	114	101	39
104.0	94.0	38.0	104	94	38
94.0	86.0	36.0	94	86	36
88.0	81.0	36.0	88	81	36
79.0	75.0	31.0	79	75	31
73.0	71.0	28.0	73	71	28
70.0	72.0	30.0	70	72	30
66.0	73.0	32.0	66	73	32
69.0	78.0	39.0	69	78	39
60.0	70.0	33.0	60	70	33
64.0	77.0	38.0	64	77	38
62.0	74.0	38.0	62	74	38
61.0	76.0	41.0	61	76	41
56.0	71.0	37.0	56	71	37
69.0	86.0	51.0	69	86	51
66.0	85.0	51.0	66	85	51
50.0	69.0	37.0	50	69	37
57.0	76.0	44.0	57	76	44
42.0	58.0	28.0	42	58	28
80.0	94.0	62.0	80	94	62
48.0	63.0	31.0	48	63	31
46.0	59.0	25.0	46	59	25
39.0	52.0	18.0	39	52	18
60.0	70.0	35.0	60	70	35
60.0	68.0	33.0	60	68	33
54.0	62.0	28.0	54	62	28
77.0	83.0	47.0	77	83	47
99.0	103.0	66.0	99	103	66
71.0	75.0	38.0	71	75	38
52.0	56.0	18.0	52	56	18
52.0	59.0	20.0	52	59	20
53.0	61.0	24.0	53	61	24
69.0	78.0	41.0	69	78	41
64.0	72.0	37.0	64	72	37
58.0	66.0	31.0	58	66	31
62.0	70.0	36.0	62	70	36
70.0	80.0	45.0	70	80	45
69.0	79.0	46.0	69	79	46
59.0	68.0	35.0	59	68	35
61.0	68.0	39.0	61	68	39
22.0	27.0	0.0	22	27	0
41.0	45.0	7.0	41	45	7
110.0	110.0	64.0	110	110	64
91.0	88.0	34.0	91	88	34
100.0	97.0	34.0	100	97	34
99.0	94.0	23.0	99	94	23
77.0	74.0	7.0	77	74	7
77.0	73.0	24.0	77	73	24
69.0	67.0	27.0	69	67	27
61.0	60.0	20.0	61	60	20
53.0	55.0	16.0	53	55	16
89.0	91.0	52.0	89	91	52
139.0	141.0	102.0	139	141	102
40.0	42.0	3.0	40	42	3
114.0	115.0	78.0	114	115	78
92.0	93.0	56.0	92	93	56
72.0	73.0	36.0	72	73	36
80.0	81.0	45.0	80	81	45
64.0	65.0	30.0	64	65	30
78.0	82.0	49.0	78	82	49
68.0	71.0	38.0	68	71	38
51.0	57.0	23.0	51	57	23
56.0	61.0	28.0	56	61	28
68.0	73.0	39.0	68	73	39
41.0	46.0	13.0	41	46	13
32.0	40.0	6.0	32	40	6
48.0	56.0	22.0	48	56	22
52.0	59.0	27.0	52	59	27
14.0	21.0	0.0	14	21	0
73.0	80.0	48.0	73	80	48
50.0	58.0	23.0	50	58	23
69.0	75.0	38.0	69	75	38
37.0	43.0	7.0	37	43	7
64.0	70.0	32.0	64	70	32
53.0	57.0	17.0	53	57	17
55.0	59.0	21.0	55	59	21
57.0	58.0	21.0	57	58	21
57.0	58.0	21.0	57	58	21
58.0	57.0	23.0	58	57	23
47.0	45.0	12.0	47	45	12
70.0	66.0	36.0	70	66	36
56.0	52.0	22.0	56	52	22
57.0	50.0	21.0	57	50	21
48.0	41.0	11.0	48	41	11
56.0	49.0	19.0	56	49	19
67.0	61.0	31.0	67	61	31
76.0	69.0	37.0	76	69	37
65.0	59.0	25.0	65	59	25
53.0	48.0	13.0	53	48	13
53.0	48.0	11.0	53	48	11
65.0	60.0	23.0	65	60	23
60.0	55.0	16.0	60	55	16
66.0	61.0	22.0	66	61	22
69.0	67.0	27.0	69	67	27
70.0	68.0	28.0	70	68	28
63.0	61.0	21.0	63	61	21
75.0	74.0	34.0	75	74	34
58.0	60.0	18.0	58	60	18
31.0	33.0	0.0	31	33	0
67.0	71.0	31.0	67	71	31
71.0	76.0	36.0	71	76	36
54.0	58.0	20.0	54	58	20
25.0	28.0	0.0	25	28	0
42.0	46.0	10.0	42	46	10
76.0	80.0	44.0	76	80	44
53.0	56.0	23.0	53	56	23
81.0	84.0	51.0	81	84	51
63.0	66.0	33.0	63	66	33
34.0	39.0	8.0	34	39	8
41.0	45.0	17.0	41	45	17
54.0	58.0	31.0	54	58	31
25.0	32.0	5.0	25	32	5
29.0	35.0	10.0	29	35	10
28.0	34.0	9.0	28	34	9
61.0	64.0	40.0	61	64	40
56.0	60.0	34.0	56	60	34
40.0	44.0	17.0	40	44	17
35.0	39.0	13.0	35	39	13
42.0	47.0	18.0	42	47	18
41.0	43.0	15.0	41	43	15
39.0	41.0	13.0	39	41	13
41.0	43.0	15.0	41	43	15
50.0	50.0	20.0	50	50	20
57.0	57.0	27.0	57	57	27
53.0	54.0	24.0	53	54	24
49.0	49.0	17.0	49	49	17
50.0	51.0	14.0	50	51	14
57.0	57.0	16.0	57	57	16
62.0	60.0	18.0	62	60	18
55.0	53.0	11.0	55	53	11
95.0	93.0	50.0	95	93	50
107.0	103.0	59.0	107	103	59
83.0	78.0	34.0	83	78	34
53.0	49.0	5.0	53	49	5
65.0	61.0	15.0	65	61	15
76.0	75.0	27.0	76	75	27
77.0	76.0	29.0	77	76	29
80.0	78.0	31.0	80	78	31
91.0	87.0	40.0	91	87	40
65.0	60.0	12.0	65	60	12
88.0	80.0	30.0	88	80	30
83.0	76.0	24.0	83	76	24
60.0	53.0	0.0	60	53	0
100.0	91.0	37.0	100	91	37
91.0	82.0	26.0	91	82	26
82.0	70.0	15.0	82	70	15
96.0	84.0	29.0	96	84	29
111.0	98.0	43.0	111	98	43
79.0	65.0	10.0	79	65	10
93.0	79.0	24.0	93	79	24
102.0	88.0	34.0	102	88	34
100.0	86.0	31.0	100	86	31
80.0	66.0	10.0	80	66	10
80.0	65.0	4.0	80	65	4
97.0	83.0	15.0	97	83	15
108.0	96.0	16.0	108	96	16
143.0	132.0	45.0	143	132	45
119.0	109.0	15.0	119	109	15
125.0	118.0	23.0	125	118	23
104.0	97.0	13.0	104	97	13
114.0	110.0	25.0	114	110	25
132.0	129.0	34.0	132	129	34
143.0	142.0	47.0	143	142	47
133.0	132.0	44.0	133	132	44
94.0	90.0	16.0	94	90	16
105.0	98.0	44.0	105	98	44
114.0	107.0	78.0	114	107	78
168.0	159.0	160.0	168	159	160
146.0	140.0	153.0	146	140	153
123.0	122.0	129.0	123	122	129
163.0	165.0	164.0	163	165	164
163.0	166.0	158.0	163	166	158
175.0	177.0	161.0	175	177	161
137.0	137.0	110.0	137	137	110
155.0	149.0	114.0	155	149	114
160.0	146.0	105.0	160	146	105
174.0	148.0	109.0	174	148	109
106.0	68.0	37.0	106	68	37
115.0	75.0	55.0	115	75	55
203.0	172.0	164.0	203	172	164
99.0	83.0	81.0	99	83	81
30.0	39.0	38.0	30	39	38
139.0	162.0	161.0	139	162	161
132.0	160.0	157.0	132	160	157
35.0	61.0	56.0	35	61	56
34.0	51.0	43.0	34	51	43
98.0	104.0	93.0	98	104	93
62.0	57.0	43.0	62	57	43
61.0	45.0	28.0	61	45	28
84.0	62.0	42.0	84	62	42
100.0	79.0	54.0	100	79	54
101.0	85.0	54.0	101	85	54
114.0	103.0	68.0	114	103	68
110.0	102.0	66.0	110	102	66
126.0	119.0	80.0	126	119	80
147.0	140.0	101.0	147	140	101
155.0	148.0	107.0	155	148	107
163.0	156.0	115.0	163	156	115
148.0	136.0	88.0	148	136	88
220.0	195.0	135.0	220	195	135
224.0	194.0	131.0	224	194	131
223.0	192.0	132.0	223	192	132
223.0	192.0	134.0	223	192	134
210.0	178.0	123.0	210	178	123
217.0	185.0	132.0	217	185	132
231.0	199.0	148.0	231	199	148
206.0	176.0	123.0	206	176	123
208.0	178.0	124.0	208	178	124
230.0	200.0	144.0	230	200	144
216.0	187.0	128.0	216	187	128
215.0	185.0	127.0	215	185	127
219.0	190.0	132.0	219	190	132
220.0	191.0	133.0	220	191	133
223.0	192.0	134.0	223	192	134
226.0	194.0	134.0	226	194	134
201.0	171.0	106.0	201	171	106
224.0	195.0	132.0	224	195	132
192.0	166.0	111.0	192	166	111
128.0	106.0	61.0	128	106	61
111.0	91.0	57.0	111	91	57
100.0	86.0	59.0	100	86	59
105.0	95.0	73.0	105	95	73
96.0	90.0	74.0	96	90	74
60.0	60.0	46.0	60	60	46
76.0	78.0	66.0	76	78	66
83.0	88.0	75.0	83	88	75
79.0	83.0	70.0	79	83	70
76.0	81.0	68.0	76	81	68
54.0	59.0	46.0	54	59	46
97.0	102.0	89.0	97	102	89
75.0	80.0	67.0	75	80	67
57.0	71.0	55.0	57	71	55
36.0	50.0	34.0	36	50	34
83.0	97.0	81.0	83	97	81
65.0	79.0	63.0	65	79	63
25.0	39.0	23.0	25	39	23
49.0	63.0	45.0	49	63	45
22.0	37.0	18.0	22	37	18
35.0	49.0	31.0	35	49	31
16.0	33.0	11.0	16	33	11
72.0	89.0	67.0	72	89	67
43.0	60.0	36.0	43	60	36
40.0	58.0	34.0	40	58	34
25.0	43.0	19.0	25	43	19
20.0	35.0	12.0	20	35	12
27.0	43.0	17.0	27	43	17
37.0	53.0	27.0	37	53	27
55.0	69.0	42.0	55	69	42
55.0	69.0	42.0	55	69	42
36.0	47.0	21.0	36	47	21
66.0	78.0	49.0	66	78	49
55.0	66.0	37.0	55	66	37
25.0	37.0	10.0	25	37	10
34.0	44.0	20.0	34	44	20
66.0	79.0	56.0	66	79	56
87.0	102.0	83.0	87	102	83
144.0	160.0	146.0	144	160	146
85.0	104.0	91.0	85	104	91
49.0	67.0	57.0	49	67	57
20.0	35.0	25.0	20	35	25
71.0	86.0	76.0	71	86	76
43.0	58.0	50.0	43	58	50
51.0	65.0	61.0	51	65	61
28.0	44.0	44.0	28	44	44
166.0	182.0	183.0	166	182	183
102.0	117.0	123.0	102	117	123
56.0	71.0	78.0	56	71	78
94.0	107.0	114.0	94	107	114
32.0	45.0	52.0	32	45	52
109.0	124.0	128.0	109	124	128
47.0	64.0	60.0	47	64	60
58.0	80.0	59.0	58	80	59
41.0	64.0	33.0	41	64	33
22.0	45.0	15.0	22	45	15
49.0	72.0	42.0	49	72	42
61.0	83.0	55.0	61	83	55
52.0	75.0	47.0	52	75	47
41.0	64.0	33.0	41	64	33
48.0	71.0	40.0	48	71	40
65.0	85.0	58.0	65	85	58
35.0	55.0	32.0	35	55	32
90.0	109.0	93.0	90	109	93
91.0	109.0	100.0	91	109	100
61.0	79.0	77.0	61	79	77
36.0	54.0	57.0	36	54	57
97.0	117.0	124.0	97	117	124
156.0	175.0	184.0	156	175	184
78.0	100.0	108.0	78	100	108
81.0	105.0	113.0	81	105	113
114.0	139.0	149.0	114	139	149
126.0	152.0	162.0	126	152	162
124.0	151.0	163.0	124	151	163
95.0	122.0	133.0	95	122	133
94.0	124.0	137.0	94	124	137
96.0	126.0	139.0	96	126	139
81.0	113.0	125.0	81	113	125
87.0	119.0	131.0	87	119	131
126.0	155.0	170.0	126	155	170
197.0	229.0	245.0	197	229	245
186.0	220.0	238.0	186	220	238
183.0	216.0	237.0	183	216	237
194.0	224.0	248.0	194	224	248
177.0	204.0	231.0	177	204	231
177.0	202.0	230.0	177	202	230
107.0	130.0	156.0	107	130	156
86.0	109.0	133.0	86	109	133
221.0	245.0	255.0	221	245	255
86.0	111.0	123.0	86	111	123
59.0	83.0	89.0	59	83	89
58.0	83.0	82.0	58	83	82
49.0	75.0	68.0	49	75	68
22.0	49.0	36.0	22	49	36
13.0	41.0	22.0	13	41	22
20.0	46.0	28.0	20	46	28
39.0	65.0	45.0	39	65	45
54.0	78.0	59.0	54	78	59
38.0	60.0	41.0	38	60	41
34.0	55.0	36.0	34	55	36
40.0	59.0	41.0	40	59	41
57.0	74.0	54.0	57	74	54
91.0	105.0	87.0	91	105	87
70.0	84.0	68.0	70	84	68
47.0	58.0	45.0	47	58	45
52.0	63.0	50.0	52	63	50
108.0	119.0	104.0	108	119	104
42.0	52.0	32.0	42	52	32
24.0	35.0	13.0	24	35	13
21.0	30.0	4.0	21	30	4
54.0	63.0	35.0	54	63	35
75.0	84.0	54.0	75	84	54
71.0	81.0	50.0	71	81	50
48.0	58.0	27.0	48	58	27
43.0	53.0	22.0	43	53	22
62.0	74.0	42.0	62	74	42
93.0	105.0	72.0	93	105	72
82.0	97.0	60.0	82	97	60
79.0	94.0	55.0	79	94	55
67.0	83.0	41.0	67	83	41
44.0	58.0	17.0	44	58	17
67.0	78.0	36.0	67	78	36
62.0	72.0	30.0	62	72	30
50.0	59.0	17.0	50	59	17
70.0	77.0	36.0	70	77	36
76.0	80.0	40.0	76	80	40
100.0	102.0	62.0	100	102	62
72.0	74.0	34.0	72	74	34
90.0	89.0	51.0	90	89	51
77.0	74.0	37.0	77	74	37
56.0	50.0	13.0	56	50	13
132.0	122.0	89.0	132	122	89
85.0	70.0	22.0	85	70	22
119.0	99.0	24.0	119	99	24
146.0	121.0	36.0	146	121	36
165.0	136.0	64.0	165	136	64
169.0	135.0	76.0	169	135	76
215.0	179.0	137.0	215	179	137
127.0	91.0	59.0	127	91	59
95.0	58.0	34.0	95	58	34
101.0	63.0	42.0	101	63	42
159.0	122.0	98.0	159	122	98
99.0	62.0	34.0	99	62	34
131.0	96.0	58.0	131	96	58
118.0	85.0	39.0	118	85	39
142.0	109.0	56.0	142	109	56
164.0	133.0	73.0	164	133	73
155.0	127.0	62.0	155	127	62
149.0	123.0	50.0	149	123	50
126.0	100.0	22.0	126	100	22
158.0	135.0	56.0	158	135	56
164.0	140.0	64.0	164	140	64
147.0	126.0	49.0	147	126	49
131.0	110.0	30.0	131	110	30
145.0	124.0	44.0	145	124	44
129.0	108.0	26.0	129	108	26
176.0	156.0	85.0	176	156	85
147.0	122.0	78.0	147	122	78
116.0	92.0	57.0	116	92	57
112.0	89.0	44.0	112	89	44
93.0	72.0	20.0	93	72	20
94.0	76.0	18.0	94	76	18
146.0	129.0	66.0	146	129	66
127.0	111.0	44.0	127	111	44
150.0	135.0	56.0	150	135	56
138.0	126.0	30.0	138	126	30
190.0	179.0	80.0	190	179	80
203.0	184.0	104.0	203	184	104
191.0	170.0	102.0	191	170	102
171.0	149.0	91.0	171	149	91
146.0	121.0	68.0	146	121	68
135.0	109.0	54.0	135	109	54
165.0	138.0	79.0	165	138	79
123.0	97.0	33.0	123	97	33
126.0	100.0	36.0	126	100	36
120.0	90.0	37.0	120	90	37
143.0	115.0	65.0	143	115	65
151.0	123.0	71.0	151	123	71
111.0	86.0	29.0	111	86	29
126.0	103.0	36.0	126	103	36
109.0	91.0	20.0	109	91	20
131.0	117.0	48.0	131	117	48
120.0	110.0	47.0	120	110	47
96.0	89.0	33.0	96	89	33
71.0	66.0	15.0	71	66	15
86.0	80.0	34.0	86	80	34
87.0	83.0	41.0	87	83	41
76.0	76.0	35.0	76	76	35
70.0	71.0	32.0	70	71	32
41.0	47.0	8.0	41	47	8
83.0	92.0	55.0	83	92	55
46.0	56.0	19.0	46	56	19
87.0	100.0	64.0	87	100	64
66.0	79.0	45.0	66	79	45
60.0	75.0	40.0	60	75	40
36.0	53.0	18.0	36	53	18
61.0	77.0	44.0	61	77	44
35.0	53.0	22.0	35	53	22
46.0	67.0	35.0	46	67	35
36.0	55.0	23.0	36	55	23
49.0	67.0	36.0	49	67	36
46.0	62.0	29.0	46	62	29
52.0	66.0	34.0	52	66	34
52.0	65.0	31.0	52	65	31
7.0	19.0	0.0	7	19	0
46.0	56.0	21.0	46	56	21
95.0	105.0	70.0	95	105	70
82.0	90.0	56.0	82	90	56
80.0	88.0	51.0	80	88	51
83.0	89.0	50.0	83	89	50
42.0	46.0	8.0	42	46	8
69.0	73.0	35.0	69	73	35
63.0	69.0	31.0	63	69	31
54.0	59.0	23.0	54	59	23
82.0	91.0	54.0	82	91	54
85.0	92.0	58.0	85	92	58
86.0	94.0	59.0	86	94	59
31.0	39.0	4.0	31	39	4
46.0	54.0	19.0	46	54	19
46.0	54.0	22.0	46	54	22
40.0	47.0	18.0	40	47	18
47.0	54.0	27.0	47	54	27
50.0	55.0	24.0	50	55	24
55.0	59.0	21.0	55	59	21
71.0	72.0	24.0	71	72	24
85.0	84.0	20.0	85	84	20
64.0	63.0	0.0	64	63	0
145.0	143.0	57.0	145	143	57
93.0	93.0	13.0	93	93	13
77.0	74.0	20.0	77	74	20
61.0	60.0	20.0	61	60	20
57.0	59.0	17.0	57	59	17
53.0	55.0	14.0	53	55	14
67.0	69.0	30.0	67	69	30
148.0	149.0	110.0	148	149	110
146.0	148.0	109.0	146	148	109
173.0	175.0	136.0	173	175	136
113.0	114.0	77.0	113	114	77
57.0	58.0	21.0	57	58	21
61.0	63.0	26.0	61	63	26
81.0	83.0	46.0	81	83	46
61.0	64.0	29.0	61	64	29
26.0	29.0	0.0	26	29	0
56.0	61.0	28.0	56	61	28
57.0	63.0	29.0	57	63	29
59.0	65.0	31.0	59	65	31
